ply
format ascii 1.0
element vertex 45
property float x
property float y
property float z
end_header
-7771.859645843506 -2182.140111923218 -159.33500230312347 
7888.359546661377 660.3750586509705 1341.0788774490356 
-6988.5101318359375 -2786.6599559783936 -265.4390037059784 
-6755.430221557617 -2786.6599559783936 825.6469964981079 
6848.249912261963 -2786.6599559783936 825.6480097770691 
-7704.720020294189 -2281.820058822632 825.6469368934631 
7678.299427032471 -2281.820058822632 825.6480097770691 
-8351.770401000977 -80.12700080871582 825.6480097770691 
8331.950187683105 245.53899466991425 825.6469964981079 
-7704.720020294189 2772.899866104126 825.6469368934631 
7678.299427032471 2772.899866104126 825.6480097770691 
-7027.009963989258 3326.0700702667236 825.6480097770691 
-6549.479961395264 3326.0700702667236 825.6480097770691 
6050.970077514648 3345.510244369507 824.9480128288269 
7972.75972366333 -74.2579996585846 -750.3380179405212 
8088.390350341797 -1174.4199991226196 -504.0919780731201 
-8253.559112548828 -78.98649573326111 -539.3949747085571 
8319.91958618164 245.54000794887543 -469.9389934539795 
3500.7998943328857 -3456.3701152801514 413.25199604034424 
3736.6600036621094 3947.4499225616455 413.25199604034424 
-7312.597274780273 -1708.820104598999 563.2038116455078 
-7806.581020355225 91.59839898347855 564.0725493431091 
7689.809799194336 901.4750123023987 579.5480012893677 
6349.390029907227 3293.38002204895 579.5480012893677 
-6356.3947677612305 3425.36997795105 579.5480012893677 
-4279.610157012939 -3417.29998588562 816.8020248413086 
4253.190040588379 -3417.29998588562 816.8020248413086 
-6402.6594161987305 3199.510097503662 1205.8789730072021 
6376.229763031006 3199.510097503662 1205.8789730072021 
6982.559680938721 -1792.9500341415405 -1010.5710029602051 
-7550.739765167236 -1117.6300048828125 -929.5869469642639 
-7916.039943695068 -765.5329704284668 -750.3700256347656 
-5531.808853149414 -3299.666166305542 -497.41825461387634 
6542.72985458374 -767.6050066947937 579.5480012893677 
-7299.925327301025 68.9685270190239 568.4602856636047 
-6040.687561035156 2554.229974746704 579.5480012893677 
-788.9209985733032 -3011.4099979400635 1487.6165390014648 
374.6429979801178 -3011.4099979400635 1487.6165390014648 
7162.779808044434 -1879.889965057373 1345.2589511871338 
-6888.1683349609375 2991.374969482422 1326.5423774719238 
-6003.287315368652 1077.8870582580566 -1044.2509651184082 
5996.870040893555 1077.5779485702515 -1044.2509651184082 
-686.4510178565979 491.6450083255768 1245.2590465545654 
-4857.060432434082 647.4374532699585 1330.082893371582 
4864.296913146973 654.2078256607056 1355.7696342468262 
