ply
format ascii 1.0
element vertex 49
property float x
property float y
property float z
end_header
2273.0000019073486 -91849.9984741211 -142922.98889160156 
-53086.997985839844 -277950.01220703125 -190548.00415039062 
-20697.093963623047 -138505.99670410156 216302.2918701172 
-9531.408309936523 -76582.58819580078 92223.12927246094 
39044.681549072266 -62594.0055847168 40793.4455871582 
-19939.334869384766 -84125.18310546875 31000.564575195312 
53086.997985839844 -277950.01220703125 -190548.00415039062 
-72987.87689208984 -154561.99645996094 -196691.650390625 
72987.87689208984 -154561.99645996094 -196691.4520263672 
-61107.9216003418 -228978.74450683594 -173359.97009277344 
61223.93035888672 -228954.72717285156 -173360.00061035156 
-61171.783447265625 -106798.04229736328 -173360.00061035156 
61155.826568603516 -106869.3618774414 -173359.9853515625 
169238.09814453125 -169054.931640625 -159773.5595703125 
-169708.0078125 -166482.48291015625 -159602.84423828125 
-167266.11328125 166807.58666992188 -158845.06225585938 
169707.763671875 166482.65075683594 -159601.94396972656 
2273.0000019073486 164412.00256347656 -149820.9991455078 
2273.0000019073486 -218824.9969482422 -142922.98889160156 
99129.7378540039 -81778.72467041016 -116971.0464477539 
-100730.0033569336 -63732.994079589844 -115537.00256347656 
101151.49688720703 -38657.00149536133 -111378.01361083984 
140002.50244140625 83968.49822998047 -101535.00366210938 
-142359.0087890625 92262.00866699219 -101535.00366210938 
-151192.9931640625 157951.0040283203 -101535.00366210938 
151192.9931640625 157951.0040283203 -101535.00366210938 
126213.24157714844 213299.77416992188 -252152.9541015625 
-146282.97424316406 234129.40979003906 -255323.76098632812 
0.0 -283780.517578125 -232597.01538085938 
66982.00225830078 0.0 -232597.0001220703 
0.0 283781.005859375 -232597.0001220703 
-53445.99914550781 -229818.54248046875 -208217.25463867188 
53154.00314331055 -229532.5164794922 -208266.41845703125 
-118810.49346923828 135555.51147460938 -210350.98266601562 
-36748.00109863281 25337.99934387207 -98085.99853515625 
36748.00109863281 25337.99934387207 -98085.99853515625 
-151192.9931640625 157951.0040283203 -101535.00366210938 
2940.000057220459 157951.0040283203 -101535.00366210938 
151192.9931640625 157951.0040283203 -101535.00366210938 
-159483.18481445312 236612.4267578125 -98086.00616455078 
-3390.517473220825 234757.59887695312 -98297.34802246094 
159483.18481445312 236612.36572265625 -98085.99853515625 
18776.302337646484 -143453.52172851562 -230748.7335205078 
17957.75032043457 126690.00244140625 -231217.49877929688 
0.0 283781.005859375 -232597.0001220703 
104775.49743652344 266377.01416015625 -98085.99853515625 
-189479.2938232422 -272763.48876953125 -215558.31909179688 
189873.32153320312 -272428.77197265625 -216271.1944580078 
-20697.093963623047 -138505.99670410156 216302.2918701172 
